# .PCD v0.7 - Point Cloud Data file format
VERSION 0.7
FIELDS x y z
SIZE 4 4 4
TYPE F F F
COUNT 1 1 1
WIDTH 1708
HEIGHT 1
VIEWPOINT 0 0 0 1 0 0 0
POINTS 1708
DATA ascii
-0.062131 0.014209 1.404000
-0.060104 0.014209 1.404000
-0.058283 0.014260 1.409000
-0.056249 0.014260 1.409000
-0.054483 0.014331 1.416000
-0.052439 0.014331 1.416000
-0.050536 0.014371 1.420000
-0.048691 0.014432 1.426000
-0.046632 0.014432 1.426000
-0.044666 0.014462 1.429000
-0.042603 0.014462 1.429000
-0.041163 0.014685 1.451000
-0.040980 0.015404 1.522000
-0.038782 0.015404 1.522000
-0.036801 0.015495 1.531000
-0.034590 0.015495 1.531000
-0.032569 0.015586 1.540000
-0.240976 0.017764 1.536000
-0.238136 0.017718 1.532000
-0.235924 0.017718 1.532000
-0.230050 0.017440 1.508000
-0.224246 0.017163 1.484000
-0.222103 0.017163 1.484000
-0.217292 0.016955 1.466000
-0.211359 0.016654 1.440000
-0.209280 0.016654 1.440000
-0.206337 0.016585 1.434000
-0.204267 0.016585 1.434000
-0.200645 0.016457 1.423000
-0.198311 0.016434 1.421000
-0.196259 0.016434 1.421000
-0.194070 0.016423 1.420000
-0.192020 0.016423 1.420000
-0.189969 0.016423 1.420000
-0.187654 0.016399 1.418000
-0.185607 0.016399 1.418000
-0.183171 0.016365 1.415000
-0.181127 0.016365 1.415000
-0.178325 0.016295 1.409000
-0.175289 0.016203 1.401000
-0.173266 0.016203 1.401000
-0.169288 0.016018 1.385000
-0.167288 0.016018 1.385000
-0.164452 0.015937 1.378000
-0.162227 0.015914 1.376000
-0.160240 0.015914 1.376000
-0.158253 0.015914 1.376000
-0.156266 0.015914 1.376000
-0.153942 0.015879 1.373000
-0.151738 0.015856 1.371000
-0.149759 0.015856 1.371000
-0.147887 0.015867 1.372000
-0.145906 0.015867 1.372000
-0.143820 0.015856 1.371000
-0.141840 0.015856 1.371000
-0.139860 0.015856 1.371000
-0.138383 0.015914 1.376000
-0.136396 0.015914 1.376000
-0.134702 0.015948 1.379000
-0.132711 0.015948 1.379000
-0.130909 0.015972 1.381000
-0.128915 0.015972 1.381000
-0.126921 0.015972 1.381000
-0.124927 0.015972 1.381000
-0.122933 0.015972 1.381000
-0.120763 0.015948 1.379000
-0.118772 0.015948 1.379000
-0.116781 0.015948 1.379000
-0.115039 0.015983 1.382000
-0.113044 0.015983 1.382000
-0.111530 0.016053 1.388000
-0.109526 0.016053 1.388000
-0.107754 0.016087 1.391000
-0.106202 0.016157 1.397000
-0.104184 0.016157 1.397000
-0.102167 0.016157 1.397000
-0.100150 0.016157 1.397000
-0.098132 0.016157 1.397000
-0.095496 0.016053 1.388000
-0.093492 0.016053 1.388000
-0.091224 0.016006 1.384000
-0.089225 0.016006 1.384000
-0.087101 0.015983 1.382000
-0.085105 0.015983 1.382000
-0.083290 0.016018 1.385000
-0.081466 0.016053 1.388000
-0.079462 0.016053 1.388000
-0.077625 0.016087 1.391000
-0.075616 0.016087 1.391000
-0.073925 0.016157 1.397000
-0.071908 0.016157 1.397000
-0.069891 0.016157 1.397000
-0.068019 0.016191 1.400000
-0.065997 0.016191 1.400000
-0.063976 0.016191 1.400000
-0.062131 0.016238 1.404000
-0.060104 0.016238 1.404000
-0.058201 0.016272 1.407000
-0.056169 0.016272 1.407000
-0.054368 0.016342 1.413000
-0.052328 0.016342 1.413000
-0.050394 0.016376 1.416000
-0.048520 0.016434 1.421000
-0.046468 0.016434 1.421000
-0.044572 0.016492 1.426000
-0.042513 0.016492 1.426000
-0.040483 0.016504 1.427000
-0.039149 0.016816 1.454000
-0.037049 0.016816 1.454000
-0.036656 0.017637 1.525000
-0.034454 0.017637 1.525000
-0.032443 0.017741 1.534000
-0.240976 0.019983 1.536000
-0.238136 0.019931 1.532000
-0.235924 0.019931 1.532000
-0.230050 0.019619 1.508000
-0.224246 0.019307 1.484000
-0.222103 0.019307 1.484000
-0.217292 0.019072 1.466000
-0.211359 0.018734 1.440000
-0.209280 0.018734 1.440000
-0.206337 0.018656 1.434000
-0.204267 0.018656 1.434000
-0.200645 0.018513 1.423000
-0.198311 0.018487 1.421000
-0.196259 0.018487 1.421000
-0.194070 0.018474 1.420000
-0.192020 0.018474 1.420000
-0.189969 0.018474 1.420000
-0.187654 0.018448 1.418000
-0.185607 0.018448 1.418000
-0.183171 0.018409 1.415000
-0.181127 0.018409 1.415000
-0.178325 0.018331 1.409000
-0.175289 0.018227 1.401000
-0.173266 0.018227 1.401000
-0.169288 0.018019 1.385000
-0.167288 0.018019 1.385000
-0.164452 0.017928 1.378000
-0.162227 0.017902 1.376000
-0.160240 0.017902 1.376000
-0.158253 0.017902 1.376000
-0.156266 0.017902 1.376000
-0.153942 0.017863 1.373000
-0.151738 0.017837 1.371000
-0.149759 0.017837 1.371000
-0.147887 0.017850 1.372000
-0.145906 0.017850 1.372000
-0.143820 0.017837 1.371000
-0.141840 0.017837 1.371000
-0.139860 0.017837 1.371000
-0.138383 0.017902 1.376000
-0.136396 0.017902 1.376000
-0.134702 0.017941 1.379000
-0.132711 0.017941 1.379000
-0.130909 0.017967 1.381000
-0.128915 0.017967 1.381000
-0.126921 0.017967 1.381000
-0.124927 0.017967 1.381000
-0.122933 0.017967 1.381000
-0.120763 0.017941 1.379000
-0.118772 0.017941 1.379000
-0.116781 0.017941 1.379000
-0.115039 0.017980 1.382000
-0.113044 0.017980 1.382000
-0.111530 0.018058 1.388000
-0.109526 0.018058 1.388000
-0.107754 0.018097 1.391000
-0.106202 0.018175 1.397000
-0.104184 0.018175 1.397000
-0.102167 0.018175 1.397000
-0.100150 0.018175 1.397000
-0.098132 0.018175 1.397000
-0.095496 0.018058 1.388000
-0.093492 0.018058 1.388000
-0.091224 0.018006 1.384000
-0.089225 0.018006 1.384000
-0.087101 0.017980 1.382000
-0.085105 0.017980 1.382000
-0.083290 0.018019 1.385000
-0.081466 0.018058 1.388000
-0.079462 0.018058 1.388000
-0.077625 0.018097 1.391000
-0.075616 0.018097 1.391000
-0.073925 0.018175 1.397000
-0.071908 0.018175 1.397000
-0.069891 0.018175 1.397000
-0.068019 0.018214 1.400000
-0.065997 0.018214 1.400000
-0.063976 0.018214 1.400000
-0.062131 0.018266 1.404000
-0.060104 0.018266 1.404000
-0.058201 0.018305 1.407000
-0.056169 0.018305 1.407000
-0.054368 0.018383 1.413000
-0.052328 0.018383 1.413000
-0.050394 0.018422 1.416000
-0.048520 0.018487 1.421000
-0.046468 0.018487 1.421000
-0.044572 0.018552 1.426000
-0.042513 0.018552 1.426000
-0.040483 0.018565 1.427000
-0.039149 0.018916 1.454000
-0.037049 0.018916 1.454000
-0.036656 0.019840 1.525000
-0.034454 0.019840 1.525000
-0.032443 0.019957 1.534000
-0.030227 0.019957 1.534000
-0.241603 0.022260 1.540000
-0.238136 0.022144 1.532000
-0.235924 0.022144 1.532000
-0.230050 0.021797 1.508000
-0.224246 0.021451 1.484000
-0.222103 0.021451 1.484000
-0.218182 0.021277 1.472000
-0.216056 0.021277 1.472000
-0.211169 0.021002 1.453000
-0.206337 0.020728 1.434000
-0.204267 0.020728 1.434000
-0.200363 0.020540 1.421000
-0.198171 0.020525 1.420000
-0.196121 0.020525 1.420000
-0.193797 0.020497 1.418000
-0.191749 0.020497 1.418000
-0.189702 0.020497 1.418000
-0.187390 0.020468 1.416000
-0.185345 0.020468 1.416000
-0.182782 0.020410 1.412000
-0.180743 0.020410 1.412000
-0.178325 0.020366 1.409000
-0.175665 0.020294 1.404000
-0.173637 0.020294 1.404000
-0.169532 0.020048 1.387000
-0.167529 0.020048 1.387000
-0.164214 0.019889 1.376000
-0.162109 0.019875 1.375000
-0.160123 0.019875 1.375000
-0.158138 0.019875 1.375000
-0.156152 0.019875 1.375000
-0.153718 0.019817 1.371000
-0.151738 0.019817 1.371000
-0.149759 0.019817 1.371000
-0.148210 0.019875 1.375000
-0.146225 0.019875 1.375000
-0.144239 0.019875 1.375000
-0.142254 0.019875 1.375000
-0.140370 0.019889 1.376000
-0.138383 0.019889 1.376000
-0.136694 0.019933 1.379000
-0.134898 0.019962 1.381000
-0.132904 0.019962 1.381000
-0.130909 0.019962 1.381000
-0.128729 0.019933 1.379000
-0.126737 0.019933 1.379000
-0.124746 0.019933 1.379000
-0.122755 0.019933 1.379000
-0.120501 0.019889 1.376000
-0.118255 0.019846 1.373000
-0.116273 0.019846 1.373000
-0.114290 0.019846 1.373000
-0.112307 0.019846 1.373000
-0.110486 0.019875 1.375000
-0.108500 0.019875 1.375000
-0.107057 0.019976 1.382000
-0.105213 0.020005 1.384000
-0.103215 0.020005 1.384000
-0.101216 0.020005 1.384000
-0.099218 0.020005 1.384000
-0.097219 0.020005 1.384000
-0.095221 0.020005 1.384000
-0.093222 0.020005 1.384000
-0.091224 0.020005 1.384000
-0.089225 0.020005 1.384000
-0.087290 0.020020 1.385000
-0.085290 0.020020 1.385000
-0.083470 0.020063 1.388000
-0.081525 0.020077 1.389000
-0.079519 0.020077 1.389000
-0.077960 0.020193 1.397000
-0.075942 0.020193 1.397000
-0.073925 0.020193 1.397000
-0.071959 0.020207 1.398000
-0.069941 0.020207 1.398000
-0.068019 0.020236 1.400000
-0.065997 0.020236 1.400000
-0.063976 0.020236 1.400000
-0.062087 0.020280 1.403000
-0.060061 0.020280 1.403000
-0.058159 0.020323 1.406000
-0.056129 0.020323 1.406000
-0.054253 0.020381 1.410000
-0.052217 0.020381 1.410000
-0.050394 0.020468 1.416000
-0.048349 0.020468 1.416000
-0.046305 0.020468 1.416000
-0.044416 0.020540 1.421000
-0.042364 0.020540 1.421000
-0.040454 0.020612 1.426000
-0.038476 0.020656 1.429000
-0.036412 0.020656 1.429000
-0.034950 0.021017 1.454000
-0.032850 0.021017 1.454000
-0.032379 0.022130 1.531000
-0.030168 0.022130 1.531000
-0.241290 0.024453 1.538000
-0.237981 0.024342 1.531000
-0.235770 0.024342 1.531000
-0.230050 0.023976 1.508000
-0.224246 0.023594 1.484000
-0.222103 0.023594 1.484000
-0.218182 0.023404 1.472000
-0.216056 0.023404 1.472000
-0.211169 0.023101 1.453000
-0.206337 0.022799 1.434000
-0.204267 0.022799 1.434000
-0.200363 0.022593 1.421000
-0.197892 0.022545 1.418000
-0.195845 0.022545 1.418000
-0.193797 0.022545 1.418000
-0.191749 0.022545 1.418000
-0.189702 0.022545 1.418000
-0.187390 0.022513 1.416000
-0.185345 0.022513 1.416000
-0.182782 0.022450 1.412000
-0.180743 0.022450 1.412000
-0.178325 0.022402 1.409000
-0.175665 0.022322 1.404000
-0.173637 0.022322 1.404000
-0.168921 0.021973 1.382000
-0.166925 0.021973 1.382000
-0.164094 0.021861 1.375000
-0.162109 0.021861 1.375000
-0.160123 0.021861 1.375000
-0.158138 0.021861 1.375000
-0.156152 0.021861 1.375000
-0.153718 0.021798 1.371000
-0.151738 0.021798 1.371000
-0.149759 0.021798 1.371000
-0.148210 0.021861 1.375000
-0.146225 0.021861 1.375000
-0.144239 0.021861 1.375000
-0.142254 0.021861 1.375000
-0.140370 0.021877 1.376000
-0.138383 0.021877 1.376000
-0.136694 0.021925 1.379000
-0.134702 0.021925 1.379000
-0.132711 0.021925 1.379000
-0.130720 0.021925 1.379000
-0.128448 0.021877 1.376000
-0.126462 0.021877 1.376000
-0.124475 0.021877 1.376000
-0.122488 0.021877 1.376000
-0.120063 0.021798 1.371000
-0.118083 0.021798 1.371000
-0.116103 0.021798 1.371000
-0.114290 0.021830 1.373000
-0.112307 0.021830 1.373000
-0.110486 0.021861 1.375000
-0.108500 0.021861 1.375000
-0.106747 0.021909 1.378000
-0.105213 0.022004 1.384000
-0.103215 0.022004 1.384000
-0.101216 0.022004 1.384000
-0.099218 0.022004 1.384000
-0.097219 0.022004 1.384000
-0.095221 0.022004 1.384000
-0.093222 0.022004 1.384000
-0.091224 0.022004 1.384000
-0.089225 0.022004 1.384000
-0.087290 0.022020 1.385000
-0.085290 0.022020 1.385000
-0.083470 0.022068 1.388000
-0.081525 0.022084 1.389000
-0.079519 0.022084 1.389000
-0.077960 0.022211 1.397000
-0.075942 0.022211 1.397000
-0.073925 0.022211 1.397000
-0.071959 0.022227 1.398000
-0.069941 0.022227 1.398000
-0.068019 0.022259 1.400000
-0.065997 0.022259 1.400000
-0.063976 0.022259 1.400000
-0.062087 0.022307 1.403000
-0.060061 0.022307 1.403000
-0.058159 0.022354 1.406000
-0.056129 0.022354 1.406000
-0.054253 0.022418 1.410000
-0.052217 0.022418 1.410000
-0.050394 0.022513 1.416000
-0.048349 0.022513 1.416000
-0.046305 0.022513 1.416000
-0.044416 0.022593 1.421000
-0.042364 0.022593 1.421000
-0.040454 0.022672 1.426000
-0.038476 0.022720 1.429000
-0.036412 0.022720 1.429000
-0.034950 0.023117 1.454000
-0.032850 0.023117 1.454000
-0.032379 0.024342 1.531000
-0.030168 0.024342 1.531000
-0.028122 0.024485 1.540000
-0.243511 0.026675 1.538000
-0.241290 0.026675 1.538000
-0.237981 0.026553 1.531000
-0.235770 0.026553 1.531000
-0.230813 0.026241 1.513000
-0.224246 0.025738 1.484000
-0.222103 0.025738 1.484000
-0.218626 0.025582 1.475000
-0.216497 0.025582 1.475000
-0.211169 0.025201 1.453000
-0.206337 0.024871 1.434000
-0.204267 0.024871 1.434000
-0.200363 0.024646 1.421000
-0.197892 0.024594 1.418000
-0.195845 0.024594 1.418000
-0.193797 0.024594 1.418000
-0.191749 0.024594 1.418000
-0.189702 0.024594 1.418000
-0.187390 0.024559 1.416000
-0.185345 0.024559 1.416000
-0.182912 0.024507 1.413000
-0.180871 0.024507 1.413000
-0.178451 0.024455 1.410000
-0.176040 0.024403 1.407000
-0.174008 0.024403 1.407000
-0.168921 0.023969 1.382000
-0.166925 0.023969 1.382000
-0.164094 0.023848 1.375000
-0.162109 0.023848 1.375000
-0.160123 0.023848 1.375000
-0.158138 0.023848 1.375000
-0.156152 0.023848 1.375000
-0.153830 0.023796 1.372000
-0.151849 0.023796 1.372000
-0.149868 0.023796 1.372000
-0.148210 0.023848 1.375000
-0.146225 0.023848 1.375000
-0.144239 0.023848 1.375000
-0.142254 0.023848 1.375000
-0.140370 0.023865 1.376000
-0.138685 0.023917 1.379000
-0.136694 0.023917 1.379000
-0.134702 0.023917 1.379000
-0.132711 0.023917 1.379000
-0.130720 0.023917 1.379000
-0.128448 0.023865 1.376000
-0.126462 0.023865 1.376000
-0.124475 0.023865 1.376000
-0.122488 0.023865 1.376000
-0.120063 0.023778 1.371000
-0.118083 0.023778 1.371000
-0.116103 0.023778 1.371000
-0.114290 0.023813 1.373000
-0.112307 0.023813 1.373000
-0.110486 0.023848 1.375000
-0.108500 0.023848 1.375000
-0.106747 0.023900 1.378000
-0.105061 0.023969 1.382000
-0.103066 0.023969 1.382000
-0.100997 0.023952 1.381000
-0.099003 0.023952 1.381000
-0.097079 0.023969 1.382000
-0.095083 0.023969 1.382000
-0.093088 0.023969 1.382000
-0.091092 0.023969 1.382000
-0.089096 0.023969 1.382000
-0.087416 0.024056 1.387000
-0.085413 0.024056 1.387000
-0.083470 0.024073 1.388000
-0.081525 0.024091 1.389000
-0.079519 0.024091 1.389000
-0.077960 0.024229 1.397000
-0.075942 0.024229 1.397000
-0.073978 0.024247 1.398000
-0.072062 0.024281 1.400000
-0.070041 0.024281 1.400000
-0.068019 0.024281 1.400000
-0.065997 0.024281 1.400000
-0.063976 0.024281 1.400000
-0.062087 0.024333 1.403000
-0.060061 0.024333 1.403000
-0.058076 0.024351 1.404000
-0.056049 0.024351 1.404000
-0.054253 0.024455 1.410000
-0.052217 0.024455 1.410000
-0.050287 0.024507 1.413000
-0.048418 0.024594 1.418000
-0.046370 0.024594 1.418000
-0.044479 0.024680 1.423000
-0.042424 0.024680 1.423000
-0.040483 0.024750 1.427000
-0.038476 0.024784 1.429000
-0.036412 0.024784 1.429000
-0.034469 0.024871 1.434000
-0.032398 0.024871 1.434000
-0.031385 0.025738 1.484000
-0.029242 0.025738 1.484000
-0.027958 0.026553 1.531000
-0.243511 0.028897 1.538000
-0.241290 0.028897 1.538000
-0.237981 0.028765 1.531000
-0.235770 0.028765 1.531000
-0.230813 0.028427 1.513000
-0.224246 0.027882 1.484000
-0.222103 0.027882 1.484000
-0.218182 0.027657 1.472000
-0.216056 0.027657 1.472000
-0.210588 0.027224 1.449000
-0.205762 0.026868 1.430000
-0.203697 0.026868 1.430000
-0.200645 0.026736 1.423000
-0.197892 0.026642 1.418000
-0.195845 0.026642 1.418000
-0.193524 0.026604 1.416000
-0.191479 0.026604 1.416000
-0.189434 0.026604 1.416000
-0.187257 0.026586 1.415000
-0.185214 0.026586 1.415000
-0.182912 0.026548 1.413000
-0.180871 0.026548 1.413000
-0.178451 0.026492 1.410000
-0.176290 0.026473 1.409000
-0.174256 0.026473 1.409000
-0.170143 0.026154 1.392000
-0.168133 0.026154 1.392000
-0.164214 0.025853 1.376000
-0.162109 0.025834 1.375000
-0.160123 0.025834 1.375000
-0.158138 0.025834 1.375000
-0.156152 0.025834 1.375000
-0.153830 0.025778 1.372000
-0.151849 0.025778 1.372000
-0.150196 0.025834 1.375000
-0.148641 0.025909 1.379000
-0.146650 0.025909 1.379000
-0.144659 0.025909 1.379000
-0.142667 0.025909 1.379000
-0.140676 0.025909 1.379000
-0.138685 0.025909 1.379000
-0.136892 0.025947 1.381000
-0.134898 0.025947 1.381000
-0.132904 0.025947 1.381000
-0.130720 0.025909 1.379000
-0.128448 0.025853 1.376000
-0.126462 0.025853 1.376000
-0.124475 0.025853 1.376000
-0.122488 0.025853 1.376000
-0.120150 0.025778 1.372000
-0.117911 0.025721 1.369000
-0.115934 0.025721 1.369000
-0.114290 0.025797 1.373000
-0.112307 0.025797 1.373000
-0.110325 0.025797 1.373000
-0.108342 0.025797 1.373000
-0.106747 0.025891 1.378000
-0.104985 0.025947 1.381000
-0.102991 0.025947 1.381000
-0.100997 0.025947 1.381000
-0.099003 0.025947 1.381000
-0.097008 0.025947 1.381000
-0.095014 0.025947 1.381000
-0.093020 0.025947 1.381000
-0.091092 0.025966 1.382000
-0.089096 0.025966 1.382000
-0.087290 0.026022 1.385000
-0.085290 0.026022 1.385000
-0.083470 0.026078 1.388000
-0.081525 0.026097 1.389000
-0.079519 0.026097 1.389000
-0.077960 0.026247 1.397000
-0.075942 0.026247 1.397000
-0.073978 0.026266 1.398000
-0.071959 0.026266 1.398000
-0.069941 0.026266 1.398000
-0.067922 0.026266 1.398000
-0.065903 0.026266 1.398000
-0.063884 0.026266 1.398000
-0.061954 0.026304 1.400000
-0.059933 0.026304 1.400000
-0.058076 0.026379 1.404000
-0.056049 0.026379 1.404000
-0.054099 0.026417 1.406000
-0.052217 0.026492 1.410000
-0.050252 0.026529 1.412000
-0.048349 0.026604 1.416000
-0.046305 0.026604 1.416000
-0.044416 0.026698 1.421000
-0.042364 0.026698 1.421000
-0.040454 0.026792 1.426000
-0.038422 0.026811 1.427000
-0.036361 0.026811 1.427000
-0.034349 0.026849 1.429000
-0.032285 0.026849 1.429000
-0.030412 0.027018 1.438000
-0.029242 0.027882 1.484000
-0.027793 0.028596 1.522000
-0.025747 0.028765 1.531000
-0.243511 0.031119 1.538000
-0.241290 0.031119 1.538000
-0.237981 0.030977 1.531000
-0.235770 0.030977 1.531000
-0.230813 0.030613 1.513000
-0.224246 0.030026 1.484000
-0.222103 0.030026 1.484000
-0.218182 0.029783 1.472000
-0.216056 0.029783 1.472000
-0.210588 0.029318 1.449000
-0.205762 0.028933 1.430000
-0.203697 0.028933 1.430000
-0.200645 0.028792 1.423000
-0.197892 0.028691 1.418000
-0.195845 0.028691 1.418000
-0.193524 0.028650 1.416000
-0.191479 0.028650 1.416000
-0.189434 0.028650 1.416000
-0.187257 0.028630 1.415000
-0.185214 0.028630 1.415000
-0.182912 0.028589 1.413000
-0.180871 0.028589 1.413000
-0.178451 0.028529 1.410000
-0.176290 0.028508 1.409000
-0.174256 0.028508 1.409000
-0.170143 0.028164 1.392000
-0.168133 0.028164 1.392000
-0.164214 0.027841 1.376000
-0.162109 0.027821 1.375000
-0.160123 0.027821 1.375000
-0.158138 0.027821 1.375000
-0.156152 0.027821 1.375000
-0.153830 0.027760 1.372000
-0.151849 0.027760 1.372000
-0.150196 0.027821 1.375000
-0.148641 0.027901 1.379000
-0.146650 0.027901 1.379000
-0.144659 0.027901 1.379000
-0.142667 0.027901 1.379000
-0.140676 0.027901 1.379000
-0.138685 0.027901 1.379000
-0.136892 0.027942 1.381000
-0.134898 0.027942 1.381000
-0.132904 0.027942 1.381000
-0.130720 0.027901 1.379000
-0.128448 0.027841 1.376000
-0.126462 0.027841 1.376000
-0.124475 0.027841 1.376000
-0.122488 0.027841 1.376000
-0.120150 0.027760 1.372000
-0.117911 0.027699 1.369000
-0.115934 0.027699 1.369000
-0.114290 0.027780 1.373000
-0.112307 0.027780 1.373000
-0.110325 0.027780 1.373000
-0.108342 0.027780 1.373000
-0.106747 0.027881 1.378000
-0.104985 0.027942 1.381000
-0.102991 0.027942 1.381000
-0.100997 0.027942 1.381000
-0.099003 0.027942 1.381000
-0.097008 0.027942 1.381000
-0.095014 0.027942 1.381000
-0.093020 0.027942 1.381000
-0.091092 0.027962 1.382000
-0.089096 0.027962 1.382000
-0.087290 0.028023 1.385000
-0.085290 0.028023 1.385000
-0.083470 0.028084 1.388000
-0.081525 0.028104 1.389000
-0.079519 0.028104 1.389000
-0.077960 0.028266 1.397000
-0.075942 0.028266 1.397000
-0.073978 0.028286 1.398000
-0.071959 0.028286 1.398000
-0.069941 0.028286 1.398000
-0.067922 0.028286 1.398000
-0.065903 0.028286 1.398000
-0.063884 0.028286 1.398000
-0.061954 0.028326 1.400000
-0.059933 0.028326 1.400000
-0.058076 0.028407 1.404000
-0.056049 0.028407 1.404000
-0.054099 0.028448 1.406000
-0.052291 0.028569 1.412000
-0.050252 0.028569 1.412000
-0.048349 0.028650 1.416000
-0.046305 0.028650 1.416000
-0.044416 0.028751 1.421000
-0.042364 0.028751 1.421000
-0.040454 0.028852 1.426000
-0.038422 0.028873 1.427000
-0.036361 0.028873 1.427000
-0.034349 0.028913 1.429000
-0.032285 0.028913 1.429000
-0.030412 0.029095 1.438000
-0.029991 0.030795 1.522000
-0.027793 0.030795 1.522000
-0.025797 0.031038 1.534000
-0.243194 0.033297 1.536000
-0.240976 0.033297 1.536000
-0.237359 0.033102 1.527000
-0.235154 0.033102 1.527000
-0.230813 0.032798 1.513000
-0.224397 0.032191 1.485000
-0.222253 0.032191 1.485000
-0.217885 0.031866 1.470000
-0.212680 0.031411 1.449000
-0.210588 0.031411 1.449000
-0.206337 0.031086 1.434000
-0.204267 0.031086 1.434000
-0.201491 0.030978 1.429000
-0.198311 0.030804 1.421000
-0.196259 0.030804 1.421000
-0.193797 0.030739 1.418000
-0.191749 0.030739 1.418000
-0.189434 0.030696 1.416000
-0.186993 0.030631 1.413000
-0.184952 0.030631 1.413000
-0.182782 0.030609 1.412000
-0.180743 0.030609 1.412000
-0.178325 0.030544 1.409000
-0.175665 0.030436 1.404000
-0.173637 0.030436 1.404000
-0.170021 0.030154 1.391000
-0.168012 0.030154 1.391000
-0.164810 0.029937 1.381000
-0.162580 0.029894 1.379000
-0.160589 0.029894 1.379000
-0.158138 0.029807 1.375000
-0.156152 0.029807 1.375000
-0.154167 0.029807 1.375000
-0.152181 0.029807 1.375000
-0.150305 0.029829 1.376000
-0.148641 0.029894 1.379000
-0.146650 0.029894 1.379000
-0.144869 0.029937 1.381000
-0.142874 0.029937 1.381000
-0.140880 0.029937 1.381000
-0.138886 0.029937 1.381000
-0.136892 0.029937 1.381000
-0.134898 0.029937 1.381000
-0.132904 0.029937 1.381000
-0.130625 0.029872 1.378000
-0.128355 0.029807 1.375000
-0.126370 0.029807 1.375000
-0.124384 0.029807 1.375000
-0.122399 0.029807 1.375000
-0.120150 0.029742 1.372000
-0.118169 0.029742 1.372000
-0.116273 0.029764 1.373000
-0.114457 0.029807 1.375000
-0.112471 0.029807 1.375000
-0.111209 0.030002 1.384000
-0.109210 0.030002 1.384000
-0.107212 0.030002 1.384000
-0.105061 0.029959 1.382000
-0.103066 0.029959 1.382000
-0.100997 0.029937 1.381000
-0.099003 0.029937 1.381000
-0.097008 0.029937 1.381000
-0.095014 0.029937 1.381000
-0.093020 0.029937 1.381000
-0.091092 0.029959 1.382000
-0.089096 0.029959 1.382000
-0.087416 0.030067 1.387000
-0.085413 0.030067 1.387000
-0.083530 0.030110 1.389000
-0.081642 0.030154 1.391000
-0.079633 0.030154 1.391000
-0.077960 0.030284 1.397000
-0.075942 0.030284 1.397000
-0.073978 0.030306 1.398000
-0.071959 0.030306 1.398000
-0.069941 0.030306 1.398000
-0.067922 0.030306 1.398000
-0.065903 0.030306 1.398000
-0.063884 0.030306 1.398000
-0.061954 0.030349 1.400000
-0.059933 0.030349 1.400000
-0.058076 0.030436 1.404000
-0.056049 0.030436 1.404000
-0.054099 0.030479 1.406000
-0.052217 0.030566 1.410000
-0.050181 0.030566 1.410000
-0.048247 0.030631 1.413000
-0.046207 0.030631 1.413000
-0.044416 0.030804 1.421000
-0.042364 0.030804 1.421000
-0.040454 0.030912 1.426000
-0.038422 0.030934 1.427000
-0.036361 0.030934 1.427000
-0.034349 0.030978 1.429000
-0.032285 0.030978 1.429000
-0.030328 0.031086 1.434000
-0.028809 0.031693 1.462000
-0.026698 0.031693 1.462000
-0.025562 0.032950 1.520000
-0.023367 0.032950 1.520000
-0.246051 0.035609 1.540000
-0.243194 0.035516 1.536000
-0.240976 0.035516 1.536000
-0.236737 0.035215 1.523000
-0.234538 0.035215 1.523000
-0.229135 0.034730 1.502000
-0.223642 0.034221 1.480000
-0.221505 0.034221 1.480000
-0.215810 0.033666 1.456000
-0.212534 0.033481 1.448000
-0.210443 0.033481 1.448000
-0.206337 0.033158 1.434000
-0.204267 0.033158 1.434000
-0.201491 0.033042 1.429000
-0.198311 0.032857 1.421000
-0.196259 0.032857 1.421000
-0.193797 0.032788 1.418000
-0.191749 0.032788 1.418000
-0.189434 0.032741 1.416000
-0.186993 0.032672 1.413000
-0.184952 0.032672 1.413000
-0.182523 0.032603 1.410000
-0.180487 0.032603 1.410000
-0.178072 0.032533 1.407000
-0.175289 0.032394 1.401000
-0.173266 0.032394 1.401000
-0.169165 0.032001 1.384000
-0.167167 0.032001 1.384000
-0.164810 0.031932 1.381000
-0.162580 0.031886 1.379000
-0.160589 0.031886 1.379000
-0.158138 0.031793 1.375000
-0.156152 0.031793 1.375000
-0.153830 0.031724 1.372000
-0.151849 0.031724 1.372000
-0.150196 0.031793 1.375000
-0.148641 0.031886 1.379000
-0.146650 0.031886 1.379000
-0.144659 0.031886 1.379000
-0.142667 0.031886 1.379000
-0.140880 0.031932 1.381000
-0.138886 0.031932 1.381000
-0.136892 0.031932 1.381000
-0.134898 0.031932 1.381000
-0.132904 0.031932 1.381000
-0.130625 0.031863 1.378000
-0.128355 0.031793 1.375000
-0.126370 0.031793 1.375000
-0.124384 0.031793 1.375000
-0.122399 0.031793 1.375000
-0.120150 0.031724 1.372000
-0.118169 0.031724 1.372000
-0.116273 0.031747 1.373000
-0.114457 0.031793 1.375000
-0.112471 0.031793 1.375000
-0.111209 0.032001 1.384000
-0.109210 0.032001 1.384000
-0.107212 0.032001 1.384000
-0.105061 0.031955 1.382000
-0.103066 0.031955 1.382000
-0.100997 0.031932 1.381000
-0.099003 0.031932 1.381000
-0.097008 0.031932 1.381000
-0.095014 0.031932 1.381000
-0.093020 0.031932 1.381000
-0.091092 0.031955 1.382000
-0.089096 0.031955 1.382000
-0.087416 0.032071 1.387000
-0.085413 0.032071 1.387000
-0.083530 0.032117 1.389000
-0.081642 0.032163 1.391000
-0.079633 0.032163 1.391000
-0.077960 0.032302 1.397000
-0.075942 0.032302 1.397000
-0.073978 0.032325 1.398000
-0.071959 0.032325 1.398000
-0.069941 0.032325 1.398000
-0.067922 0.032325 1.398000
-0.065903 0.032325 1.398000
-0.063884 0.032325 1.398000
-0.061954 0.032371 1.400000
-0.059933 0.032371 1.400000
-0.058076 0.032464 1.404000
-0.056049 0.032464 1.404000
-0.054099 0.032510 1.406000
-0.052217 0.032603 1.410000
-0.050181 0.032603 1.410000
-0.048247 0.032672 1.413000
-0.046207 0.032672 1.413000
-0.044416 0.032857 1.421000
-0.042364 0.032857 1.421000
-0.040454 0.032973 1.426000
-0.038422 0.032996 1.427000
-0.036361 0.032996 1.427000
-0.034349 0.033042 1.429000
-0.032285 0.033042 1.429000
-0.030328 0.033158 1.434000
-0.028809 0.033805 1.462000
-0.026698 0.033805 1.462000
-0.025562 0.035146 1.520000
-0.023367 0.035146 1.520000
-0.021395 0.035516 1.536000
-0.246211 0.037858 1.541000
-0.243194 0.037735 1.536000
-0.240976 0.037735 1.536000
-0.236737 0.037416 1.523000
-0.234538 0.037416 1.523000
-0.229135 0.036900 1.502000
-0.223642 0.036359 1.480000
-0.221505 0.036359 1.480000
-0.215810 0.035770 1.456000
-0.212534 0.035573 1.448000
-0.210443 0.035573 1.448000
-0.206481 0.035254 1.435000
-0.204409 0.035254 1.435000
-0.201914 0.035180 1.432000
-0.198730 0.034983 1.424000
-0.196673 0.034983 1.424000
-0.194070 0.034885 1.420000
-0.192020 0.034885 1.420000
-0.189434 0.034787 1.416000
-0.186993 0.034713 1.413000
-0.184952 0.034713 1.413000
-0.182523 0.034640 1.410000
-0.180487 0.034640 1.410000
-0.178072 0.034566 1.407000
-0.175289 0.034418 1.401000
-0.173266 0.034418 1.401000
-0.169165 0.034001 1.384000
-0.167167 0.034001 1.384000
-0.164810 0.033927 1.381000
-0.162816 0.033927 1.381000
-0.160822 0.033927 1.381000
-0.158138 0.033780 1.375000
-0.156152 0.033780 1.375000
-0.153830 0.033706 1.372000
-0.151849 0.033706 1.372000
-0.150196 0.033780 1.375000
-0.148641 0.033878 1.379000
-0.146650 0.033878 1.379000
-0.144659 0.033878 1.379000
-0.142667 0.033878 1.379000
-0.141186 0.034001 1.384000
-0.139188 0.034001 1.384000
-0.137189 0.034001 1.384000
-0.135191 0.034001 1.384000
-0.133192 0.034001 1.384000
-0.130720 0.033878 1.379000
-0.128448 0.033804 1.376000
-0.126462 0.033804 1.376000
-0.124475 0.033804 1.376000
-0.122488 0.033804 1.376000
-0.120413 0.033780 1.375000
-0.118428 0.033780 1.375000
-0.116696 0.033853 1.378000
-0.115206 0.034001 1.384000
-0.113207 0.034001 1.384000
-0.111771 0.034173 1.391000
-0.109763 0.034173 1.391000
-0.107754 0.034173 1.391000
-0.105289 0.034025 1.385000
-0.103289 0.034025 1.385000
-0.100777 0.033853 1.378000
-0.098788 0.033853 1.378000
-0.097008 0.033927 1.381000
-0.095083 0.033952 1.382000
-0.093088 0.033952 1.382000
-0.091290 0.034025 1.385000
-0.089290 0.034025 1.385000
-0.087479 0.034099 1.388000
-0.085475 0.034099 1.388000
-0.083651 0.034173 1.391000
-0.081701 0.034197 1.392000
-0.079691 0.034197 1.392000
-0.077848 0.034271 1.395000
-0.075834 0.034271 1.395000
-0.073819 0.034271 1.395000
-0.071650 0.034197 1.392000
-0.069640 0.034197 1.392000
-0.067630 0.034197 1.392000
-0.065620 0.034197 1.392000
-0.063702 0.034246 1.394000
-0.061733 0.034271 1.395000
-0.059719 0.034271 1.395000
-0.057911 0.034394 1.400000
-0.055889 0.034394 1.400000
-0.054022 0.034492 1.404000
-0.052105 0.034566 1.407000
-0.050074 0.034566 1.407000
-0.048213 0.034689 1.412000
-0.046174 0.034689 1.412000
-0.044479 0.034959 1.423000
-0.042424 0.034959 1.423000
-0.040483 0.035057 1.427000
-0.038476 0.035106 1.429000
-0.036412 0.035106 1.429000
-0.034469 0.035229 1.434000
-0.032398 0.035229 1.434000
-0.030391 0.035303 1.437000
-0.028651 0.035721 1.454000
-0.026551 0.035721 1.454000
-0.025242 0.036875 1.501000
-0.023075 0.036875 1.501000
-0.021172 0.037342 1.520000
-0.246211 0.040084 1.541000
-0.242561 0.039850 1.532000
-0.240348 0.039850 1.532000
-0.235960 0.039486 1.518000
-0.233768 0.039486 1.518000
-0.228220 0.038914 1.496000
-0.221980 0.038211 1.469000
-0.219858 0.038211 1.469000
-0.215366 0.037795 1.453000
-0.212534 0.037665 1.448000
-0.210443 0.037665 1.448000
-0.207201 0.037457 1.440000
-0.205121 0.037457 1.440000
-0.202337 0.037327 1.435000
-0.199567 0.037197 1.430000
-0.197502 0.037197 1.430000
-0.194480 0.037015 1.423000
-0.192426 0.037015 1.423000
-0.189702 0.036885 1.418000
-0.186993 0.036755 1.413000
-0.184952 0.036755 1.413000
-0.182394 0.036650 1.409000
-0.180359 0.036650 1.409000
-0.175287 0.036026 1.385000
-0.173162 0.036000 1.384000
-0.171164 0.036000 1.384000
-0.168799 0.035922 1.381000
-0.166804 0.035922 1.381000
-0.164572 0.035870 1.379000
-0.162227 0.035792 1.376000
-0.160240 0.035792 1.376000
-0.157793 0.035688 1.372000
-0.155811 0.035688 1.372000
-0.153494 0.035610 1.369000
-0.151517 0.035610 1.369000
-0.149868 0.035688 1.372000
-0.148318 0.035792 1.376000
-0.146331 0.035792 1.376000
-0.144554 0.035844 1.378000
-0.142564 0.035844 1.378000
-0.140676 0.035870 1.379000
-0.139489 0.036078 1.387000
-0.137487 0.036078 1.387000
-0.135484 0.036078 1.387000
-0.133481 0.036078 1.387000
-0.131004 0.035948 1.382000
-0.128355 0.035766 1.375000
-0.126370 0.035766 1.375000
-0.124475 0.035792 1.376000
-0.122488 0.035792 1.376000
-0.120413 0.035766 1.375000
-0.118428 0.035766 1.375000
-0.116696 0.035844 1.378000
-0.115206 0.036000 1.384000
-0.113207 0.036000 1.384000
-0.111771 0.036182 1.391000
-0.109763 0.036182 1.391000
-0.107754 0.036182 1.391000
-0.105289 0.036026 1.385000
-0.103289 0.036026 1.385000
-0.100777 0.035844 1.378000
-0.098788 0.035844 1.378000
-0.097008 0.035922 1.381000
-0.095014 0.035922 1.381000
-0.093020 0.035922 1.381000
-0.091092 0.035948 1.382000
-0.089096 0.035948 1.382000
-0.087416 0.036078 1.387000
-0.085475 0.036104 1.388000
-0.083470 0.036104 1.388000
-0.081642 0.036182 1.391000
-0.079633 0.036182 1.391000
-0.077402 0.036078 1.387000
-0.075399 0.036078 1.387000
-0.073396 0.036078 1.387000
-0.071445 0.036104 1.388000
-0.069440 0.036104 1.388000
-0.067582 0.036182 1.391000
-0.065573 0.036182 1.391000
-0.063610 0.036208 1.392000
-0.061733 0.036286 1.395000
-0.059719 0.036286 1.395000
-0.057911 0.036416 1.400000
-0.055889 0.036416 1.400000
-0.053906 0.036442 1.401000
-0.052068 0.036572 1.406000
-0.050038 0.036572 1.406000
-0.048213 0.036729 1.412000
-0.046174 0.036729 1.412000
-0.044416 0.036963 1.421000
-0.042364 0.036963 1.421000
-0.040483 0.037119 1.427000
-0.038476 0.037171 1.429000
-0.036412 0.037171 1.429000
-0.034469 0.037301 1.434000
-0.032398 0.037301 1.434000
-0.030391 0.037379 1.437000
-0.028651 0.037821 1.454000
-0.026551 0.037821 1.454000
-0.025175 0.038940 1.497000
-0.023013 0.038940 1.497000
-0.021172 0.039538 1.520000
-0.018977 0.039538 1.520000
-0.246211 0.042310 1.541000
-0.242561 0.042063 1.532000
-0.240348 0.042063 1.532000
-0.235960 0.041679 1.518000
-0.233768 0.041679 1.518000
-0.228220 0.041075 1.496000
-0.221980 0.040333 1.469000
-0.219858 0.040333 1.469000
-0.215366 0.039894 1.453000
-0.212534 0.039757 1.448000
-0.210443 0.039757 1.448000
-0.207201 0.039537 1.440000
-0.205121 0.039537 1.440000
-0.202337 0.039400 1.435000
-0.199567 0.039263 1.430000
-0.197502 0.039263 1.430000
-0.194480 0.039070 1.423000
-0.192426 0.039070 1.423000
-0.189702 0.038933 1.418000
-0.186993 0.038796 1.413000
-0.184952 0.038796 1.413000
-0.182394 0.038686 1.409000
-0.180359 0.038686 1.409000
-0.175287 0.038027 1.385000
-0.173162 0.038000 1.384000
-0.171164 0.038000 1.384000
-0.168799 0.037917 1.381000
-0.166804 0.037917 1.381000
-0.164572 0.037862 1.379000
-0.162227 0.037780 1.376000
-0.160240 0.037780 1.376000
-0.157793 0.037670 1.372000
-0.155811 0.037670 1.372000
-0.153494 0.037588 1.369000
-0.151517 0.037588 1.369000
-0.149868 0.037670 1.372000
-0.148318 0.037780 1.376000
-0.146331 0.037780 1.376000
-0.144554 0.037835 1.378000
-0.142564 0.037835 1.378000
-0.140676 0.037862 1.379000
-0.139489 0.038082 1.387000
-0.137487 0.038082 1.387000
-0.135484 0.038082 1.387000
-0.133481 0.038082 1.387000
-0.131004 0.037945 1.382000
-0.128355 0.037752 1.375000
-0.126370 0.037752 1.375000
-0.124475 0.037780 1.376000
-0.122488 0.037780 1.376000
-0.121026 0.037945 1.382000
-0.119030 0.037945 1.382000
-0.117035 0.037945 1.382000
-0.115788 0.038192 1.391000
-0.113780 0.038192 1.391000
-0.111852 0.038219 1.392000
-0.109842 0.038219 1.392000
-0.107831 0.038219 1.392000
-0.105289 0.038027 1.385000
-0.103289 0.038027 1.385000
-0.100851 0.037862 1.379000
-0.098859 0.037862 1.379000
-0.097008 0.037917 1.381000
-0.095014 0.037917 1.381000
-0.093020 0.037917 1.381000
-0.091092 0.037945 1.382000
-0.089096 0.037945 1.382000
-0.087416 0.038082 1.387000
-0.085475 0.038109 1.388000
-0.083470 0.038109 1.388000
-0.081642 0.038192 1.391000
-0.079633 0.038192 1.391000
-0.077402 0.038082 1.387000
-0.075399 0.038082 1.387000
-0.073396 0.038082 1.387000
-0.071445 0.038109 1.388000
-0.069440 0.038109 1.388000
-0.067582 0.038192 1.391000
-0.065573 0.038192 1.391000
-0.063610 0.038219 1.392000
-0.061733 0.038302 1.395000
-0.059719 0.038302 1.395000
-0.057911 0.038439 1.400000
-0.055889 0.038439 1.400000
-0.053906 0.038466 1.401000
-0.052068 0.038604 1.406000
-0.050038 0.038604 1.406000
-0.048213 0.038768 1.412000
-0.046174 0.038768 1.412000
-0.044416 0.039015 1.421000
-0.042364 0.039015 1.421000
-0.040483 0.039180 1.427000
-0.038476 0.039235 1.429000
-0.036412 0.039235 1.429000
-0.034469 0.039372 1.434000
-0.032398 0.039372 1.434000
-0.030391 0.039455 1.437000
-0.028809 0.040141 1.462000
-0.026698 0.040141 1.462000
-0.025175 0.041102 1.497000
-0.023013 0.041102 1.497000
-0.020949 0.041294 1.504000
-0.018777 0.041294 1.504000
-0.246211 0.044536 1.541000
-0.241769 0.044132 1.527000
-0.239564 0.044132 1.527000
-0.234406 0.043583 1.508000
-0.232228 0.043583 1.508000
-0.226542 0.042918 1.485000
-0.220469 0.042167 1.459000
-0.218362 0.042167 1.459000
-0.215514 0.042022 1.454000
-0.212680 0.041878 1.449000
-0.210588 0.041878 1.449000
-0.208064 0.041791 1.446000
-0.205976 0.041791 1.446000
-0.202760 0.041560 1.438000
-0.200125 0.041444 1.434000
-0.198054 0.041444 1.434000
-0.195437 0.041328 1.430000
-0.193372 0.041328 1.430000
-0.189702 0.040982 1.418000
-0.186596 0.040750 1.410000
-0.184560 0.040750 1.410000
-0.180970 0.040404 1.398000
-0.178951 0.040404 1.398000
-0.174908 0.039941 1.382000
-0.172787 0.039912 1.381000
-0.170793 0.039912 1.381000
-0.168554 0.039854 1.379000
-0.166563 0.039854 1.379000
-0.164214 0.039768 1.376000
-0.162227 0.039768 1.376000
-0.160240 0.039768 1.376000
-0.157448 0.039565 1.369000
-0.155471 0.039565 1.369000
-0.153382 0.039537 1.368000
-0.151406 0.039537 1.368000
-0.149540 0.039565 1.369000
-0.147563 0.039565 1.369000
-0.145587 0.039565 1.369000
-0.144554 0.039826 1.378000
-0.142564 0.039826 1.378000
-0.140880 0.039912 1.381000
-0.139489 0.040086 1.387000
-0.137487 0.040086 1.387000
-0.135484 0.040086 1.387000
-0.133481 0.040086 1.387000
-0.131573 0.040115 1.388000
-0.129195 0.039999 1.384000
-0.127197 0.039999 1.384000
-0.125470 0.040086 1.387000
-0.123467 0.040086 1.387000
-0.121902 0.040230 1.392000
-0.119892 0.040230 1.392000
-0.118051 0.040288 1.394000
-0.116288 0.040375 1.397000
-0.114271 0.040375 1.397000
-0.112012 0.040288 1.394000
-0.109999 0.040288 1.394000
-0.107986 0.040288 1.394000
-0.105061 0.039941 1.382000
-0.103066 0.039941 1.382000
-0.100851 0.039854 1.379000
-0.098859 0.039854 1.379000
-0.096868 0.039854 1.379000
-0.095014 0.039912 1.381000
-0.093020 0.039912 1.381000
-0.091092 0.039941 1.382000
-0.089096 0.039941 1.382000
-0.087227 0.039999 1.384000
-0.085290 0.040028 1.385000
-0.083290 0.040028 1.385000
-0.081407 0.040086 1.387000
-0.079404 0.040086 1.387000
-0.077234 0.039999 1.384000
-0.075236 0.039999 1.384000
-0.073290 0.040028 1.385000
-0.071393 0.040086 1.387000
-0.069390 0.040086 1.387000
-0.067485 0.040143 1.389000
-0.065479 0.040143 1.389000
-0.063565 0.040201 1.391000
-0.061600 0.040230 1.392000
-0.059590 0.040230 1.392000
-0.057704 0.040317 1.395000
-0.055690 0.040317 1.395000
-0.053868 0.040461 1.400000
-0.052068 0.040635 1.406000
-0.050038 0.040635 1.406000
-0.048042 0.040664 1.407000
-0.046010 0.040664 1.407000
-0.044166 0.040837 1.413000
-0.042126 0.040837 1.413000
-0.040312 0.041068 1.421000
-0.038422 0.041242 1.427000
-0.036361 0.041242 1.427000
-0.034373 0.041328 1.430000
-0.032308 0.041328 1.430000
-0.030391 0.041531 1.437000
-0.029104 0.042687 1.477000
-0.026971 0.042687 1.477000
-0.025125 0.043178 1.494000
-0.022967 0.043178 1.494000
-0.020879 0.043323 1.499000
-0.018715 0.043323 1.499000
-0.016683 0.043669 1.511000
-0.249726 0.047005 1.549000
-0.245412 0.046611 1.536000
-0.240977 0.046186 1.522000
-0.238780 0.046186 1.522000
-0.233473 0.045579 1.502000
-0.231304 0.045579 1.502000
-0.226084 0.044972 1.482000
-0.220469 0.044274 1.459000
-0.218362 0.044274 1.459000
-0.215514 0.044123 1.454000
-0.212680 0.043971 1.449000
-0.210588 0.043971 1.449000
-0.208064 0.043880 1.446000
-0.205976 0.043880 1.446000
-0.202760 0.043637 1.438000
-0.200125 0.043516 1.434000
-0.198054 0.043516 1.434000
-0.195437 0.043394 1.430000
-0.193372 0.043394 1.430000
-0.189702 0.043030 1.418000
-0.186463 0.042757 1.409000
-0.184429 0.042757 1.409000
-0.180970 0.042423 1.398000
-0.178951 0.042423 1.398000
-0.174908 0.041938 1.382000
-0.172787 0.041907 1.381000
-0.170793 0.041907 1.381000
-0.168554 0.041847 1.379000
-0.166563 0.041847 1.379000
-0.164214 0.041756 1.376000
-0.162227 0.041756 1.376000
-0.160240 0.041756 1.376000
-0.157448 0.041543 1.369000
-0.155471 0.041543 1.369000
-0.153382 0.041513 1.368000
-0.151406 0.041513 1.368000
-0.149431 0.041513 1.368000
-0.147563 0.041543 1.369000
-0.145587 0.041543 1.369000
-0.144554 0.041816 1.378000
-0.142564 0.041816 1.378000
-0.140880 0.041907 1.381000
-0.139489 0.042089 1.387000
-0.137487 0.042089 1.387000
-0.135484 0.042089 1.387000
-0.133481 0.042089 1.387000
-0.131573 0.042120 1.388000
-0.129195 0.041998 1.384000
-0.127197 0.041998 1.384000
-0.125470 0.042089 1.387000
-0.123467 0.042089 1.387000
-0.121902 0.042241 1.392000
-0.119892 0.042241 1.392000
-0.118051 0.042302 1.394000
-0.116288 0.042393 1.397000
-0.114271 0.042393 1.397000
-0.112012 0.042302 1.394000
-0.109999 0.042302 1.394000
-0.107986 0.042302 1.394000
-0.105061 0.041938 1.382000
-0.103066 0.041938 1.382000
-0.100851 0.041847 1.379000
-0.098859 0.041847 1.379000
-0.096868 0.041847 1.379000
-0.095014 0.041907 1.381000
-0.093020 0.041907 1.381000
-0.091092 0.041938 1.382000
-0.089096 0.041938 1.382000
-0.087227 0.041998 1.384000
-0.085290 0.042029 1.385000
-0.083290 0.042029 1.385000
-0.081407 0.042089 1.387000
-0.079404 0.042089 1.387000
-0.077234 0.041998 1.384000
-0.075236 0.041998 1.384000
-0.073290 0.042029 1.385000
-0.071393 0.042089 1.387000
-0.069390 0.042089 1.387000
-0.067485 0.042150 1.389000
-0.065479 0.042150 1.389000
-0.063565 0.042211 1.391000
-0.061600 0.042241 1.392000
-0.059590 0.042241 1.392000
-0.057704 0.042332 1.395000
-0.055690 0.042332 1.395000
-0.053868 0.042484 1.400000
-0.052068 0.042666 1.406000
-0.050038 0.042666 1.406000
-0.048042 0.042696 1.407000
-0.046010 0.042696 1.407000
-0.044166 0.042878 1.413000
-0.042126 0.042878 1.413000
-0.040312 0.043121 1.421000
-0.038422 0.043303 1.427000
-0.036361 0.043303 1.427000
-0.034373 0.043394 1.430000
-0.032308 0.043394 1.430000
-0.030391 0.043607 1.437000
-0.029104 0.044821 1.477000
-0.026971 0.044821 1.477000
-0.025125 0.045336 1.494000
-0.022967 0.045336 1.494000
-0.020879 0.045488 1.499000
-0.018715 0.045488 1.499000
-0.016683 0.045852 1.511000
-0.014635 0.046277 1.525000
-0.249887 0.049275 1.550000
-0.245412 0.048830 1.536000
-0.240977 0.048385 1.522000
-0.238780 0.048385 1.522000
-0.233473 0.047749 1.502000
-0.231304 0.047749 1.502000
-0.226084 0.047113 1.482000
-0.221980 0.046700 1.469000
-0.219858 0.046700 1.469000
-0.215514 0.046223 1.454000
-0.213267 0.046191 1.453000
-0.211169 0.046191 1.453000
-0.208352 0.046032 1.448000
-0.206261 0.046032 1.448000
-0.202760 0.045714 1.438000
-0.200265 0.045619 1.435000
-0.198193 0.045619 1.435000
-0.195437 0.045460 1.430000
-0.193372 0.045460 1.430000
-0.190371 0.045238 1.423000
-0.186463 0.044793 1.409000
-0.184429 0.044793 1.409000
-0.180970 0.044443 1.398000
-0.178951 0.044443 1.398000
-0.174908 0.043934 1.382000
-0.172912 0.043934 1.382000
-0.171164 0.043998 1.384000
-0.168799 0.043902 1.381000
-0.166804 0.043902 1.381000
-0.165168 0.043998 1.384000
-0.162816 0.043902 1.381000
-0.160822 0.043902 1.381000
-0.157793 0.043616 1.372000
-0.155811 0.043616 1.372000
-0.153382 0.043489 1.368000
-0.151406 0.043489 1.368000
-0.149431 0.043489 1.368000
-0.147563 0.043521 1.369000
-0.145587 0.043521 1.369000
-0.144344 0.043743 1.376000
-0.142357 0.043743 1.376000
-0.140574 0.043807 1.378000
-0.139489 0.044093 1.387000
-0.137487 0.044093 1.387000
-0.135581 0.044125 1.388000
-0.133577 0.044125 1.388000
-0.131668 0.044157 1.389000
-0.129662 0.044157 1.389000
-0.127840 0.044220 1.391000
-0.125831 0.044220 1.391000
-0.123823 0.044220 1.391000
-0.122077 0.044316 1.394000
-0.120064 0.044316 1.394000
-0.118390 0.044443 1.398000
-0.116371 0.044443 1.398000
-0.114352 0.044443 1.398000
-0.112012 0.044316 1.394000
-0.109842 0.044252 1.392000
-0.107831 0.044252 1.392000
-0.104833 0.043839 1.379000
-0.102842 0.043839 1.379000
-0.100851 0.043839 1.379000
-0.098859 0.043839 1.379000
-0.096868 0.043839 1.379000
-0.095014 0.043902 1.381000
-0.093020 0.043902 1.381000
-0.091092 0.043934 1.382000
-0.089096 0.043934 1.382000
-0.087101 0.043934 1.382000
-0.085105 0.043934 1.382000
-0.083109 0.043934 1.382000
-0.081407 0.044093 1.387000
-0.079404 0.044093 1.387000
-0.077234 0.043998 1.384000
-0.075236 0.043998 1.384000
-0.073290 0.044030 1.385000
-0.071393 0.044093 1.387000
-0.069390 0.044093 1.387000
-0.067485 0.044157 1.389000
-0.065479 0.044157 1.389000
-0.063565 0.044220 1.391000
-0.061600 0.044252 1.392000
-0.059590 0.044252 1.392000
-0.057663 0.044316 1.394000
-0.055650 0.044316 1.394000
-0.053752 0.044411 1.397000
-0.051957 0.044602 1.403000
-0.049931 0.044602 1.403000
-0.048042 0.044729 1.407000
-0.046010 0.044729 1.407000
-0.044260 0.045015 1.416000
-0.042215 0.045015 1.416000
-0.040312 0.045174 1.421000
-0.038341 0.045269 1.424000
-0.036285 0.045269 1.424000
-0.034469 0.045587 1.434000
-0.032398 0.045587 1.434000
-0.030391 0.045683 1.437000
-0.029104 0.046954 1.477000
-0.026971 0.046954 1.477000
-0.025040 0.047336 1.489000
-0.022890 0.047336 1.489000
-0.020852 0.047590 1.497000
-0.018690 0.047590 1.497000
-0.016572 0.047717 1.501000
-0.014539 0.048162 1.515000
-0.250209 0.051581 1.552000
-0.245731 0.051115 1.538000
-0.239552 0.050284 1.513000
-0.237368 0.050284 1.513000
-0.231452 0.049487 1.489000
-0.229302 0.049487 1.489000
-0.225779 0.049188 1.480000
-0.221980 0.048822 1.469000
-0.219858 0.048822 1.469000
-0.215514 0.048324 1.454000
-0.212974 0.048224 1.451000
-0.210879 0.048224 1.451000
-0.208352 0.048124 1.448000
-0.206261 0.048124 1.448000
-0.202760 0.047792 1.438000
-0.199846 0.047592 1.432000
-0.197778 0.047592 1.432000
-0.194617 0.047327 1.424000
-0.192561 0.047327 1.424000
-0.189969 0.047194 1.420000
-0.186463 0.046828 1.409000
-0.184429 0.046828 1.409000
-0.181747 0.046662 1.404000
-0.179719 0.046662 1.404000
-0.175287 0.046030 1.385000
-0.173287 0.046030 1.385000
-0.171287 0.046030 1.385000
-0.168921 0.045931 1.382000
-0.166925 0.045931 1.382000
-0.164930 0.045931 1.382000
-0.162227 0.045731 1.376000
-0.160240 0.045731 1.376000
-0.157908 0.045632 1.373000
-0.155925 0.045632 1.373000
-0.153494 0.045499 1.369000
-0.151517 0.045499 1.369000
-0.149540 0.045499 1.369000
-0.147779 0.045565 1.371000
-0.145799 0.045565 1.371000
-0.144239 0.045698 1.375000
-0.142254 0.045698 1.375000
-0.140574 0.045798 1.378000
-0.138886 0.045897 1.381000
-0.136892 0.045897 1.381000
-0.135191 0.045997 1.384000
-0.133192 0.045997 1.384000
-0.131573 0.046130 1.388000
-0.129569 0.046130 1.388000
-0.127840 0.046230 1.391000
-0.125831 0.046230 1.391000
-0.123823 0.046230 1.391000
-0.122077 0.046330 1.394000
-0.120064 0.046330 1.394000
-0.118390 0.046462 1.398000
-0.116288 0.046429 1.397000
-0.114271 0.046429 1.397000
-0.111048 0.045931 1.382000
-0.108816 0.045831 1.379000
-0.106824 0.045831 1.379000
-0.104605 0.045731 1.376000
-0.102618 0.045731 1.376000
-0.100777 0.045798 1.378000
-0.098788 0.045798 1.378000
-0.096868 0.045831 1.379000
-0.095014 0.045897 1.381000
-0.093020 0.045897 1.381000
-0.091026 0.045897 1.381000
-0.089032 0.045897 1.381000
-0.087101 0.045931 1.382000
-0.085105 0.045931 1.382000
-0.083109 0.045931 1.382000
-0.081231 0.045997 1.384000
-0.079118 0.045931 1.382000
-0.077123 0.045931 1.382000
-0.075236 0.045997 1.384000
-0.073237 0.045997 1.384000
-0.071290 0.046030 1.385000
-0.069290 0.046030 1.385000
-0.067436 0.046130 1.388000
-0.065432 0.046130 1.388000
-0.063565 0.046230 1.391000
-0.061600 0.046263 1.392000
-0.059590 0.046263 1.392000
-0.057580 0.046263 1.392000
-0.055570 0.046263 1.392000
-0.053637 0.046330 1.394000
-0.051883 0.046562 1.401000
-0.049860 0.046562 1.401000
-0.048042 0.046762 1.407000
-0.046010 0.046762 1.407000
-0.044260 0.047061 1.416000
-0.042215 0.047061 1.416000
-0.040312 0.047227 1.421000
-0.038341 0.047327 1.424000
-0.036285 0.047327 1.424000
-0.034469 0.047659 1.434000
-0.032398 0.047659 1.434000
-0.030391 0.047759 1.437000
-0.029104 0.049088 1.477000
-0.026971 0.049088 1.477000
-0.025040 0.049487 1.489000
-0.022890 0.049487 1.489000
-0.020852 0.049753 1.497000
-0.018690 0.049753 1.497000
-0.016572 0.049886 1.501000
-0.014539 0.050351 1.515000
-0.250209 0.053823 1.552000
-0.245731 0.053337 1.538000
-0.239552 0.052470 1.513000
-0.237368 0.052470 1.513000
-0.231452 0.051638 1.489000
-0.229302 0.051638 1.489000
-0.225779 0.051326 1.480000
-0.221980 0.050944 1.469000
-0.219858 0.050944 1.469000
-0.215514 0.050424 1.454000
-0.212974 0.050320 1.451000
-0.210879 0.050320 1.451000
-0.208352 0.050216 1.448000
-0.206261 0.050216 1.448000
-0.202760 0.049869 1.438000
-0.199846 0.049661 1.432000
-0.197778 0.049661 1.432000
-0.194617 0.049384 1.424000
-0.192561 0.049384 1.424000
-0.189969 0.049245 1.420000
-0.186463 0.048864 1.409000
-0.184429 0.048864 1.409000
-0.181747 0.048690 1.404000
-0.179719 0.048690 1.404000
-0.175287 0.048031 1.385000
-0.173287 0.048031 1.385000
-0.171287 0.048031 1.385000
-0.168921 0.047927 1.382000
-0.166925 0.047927 1.382000
-0.164930 0.047927 1.382000
-0.162227 0.047719 1.376000
-0.160240 0.047719 1.376000
-0.157908 0.047615 1.373000
-0.155925 0.047615 1.373000
-0.153494 0.047476 1.369000
-0.151517 0.047476 1.369000
-0.149540 0.047476 1.369000
-0.147779 0.047546 1.371000
-0.145799 0.047546 1.371000
-0.144239 0.047684 1.375000
-0.142254 0.047684 1.375000
-0.140574 0.047788 1.378000
-0.138886 0.047893 1.381000
-0.136892 0.047893 1.381000
-0.135191 0.047997 1.384000
-0.133192 0.047997 1.384000
-0.131573 0.048135 1.388000
-0.129569 0.048135 1.388000
-0.127840 0.048239 1.391000
-0.125831 0.048239 1.391000
-0.123823 0.048239 1.391000
-0.122077 0.048343 1.394000
-0.120064 0.048343 1.394000
-0.118390 0.048482 1.398000
-0.116288 0.048447 1.397000
-0.114271 0.048447 1.397000
-0.111048 0.047927 1.382000
-0.108816 0.047823 1.379000
-0.106824 0.047823 1.379000
-0.104605 0.047719 1.376000
-0.102618 0.047719 1.376000
-0.100777 0.047788 1.378000
-0.098788 0.047788 1.378000
-0.096868 0.047823 1.379000
-0.095014 0.047893 1.381000
-0.093020 0.047893 1.381000
-0.091026 0.047893 1.381000
-0.089032 0.047893 1.381000
-0.087101 0.047927 1.382000
-0.085105 0.047927 1.382000
-0.083109 0.047927 1.382000
-0.081231 0.047997 1.384000
-0.079118 0.047927 1.382000
-0.077123 0.047927 1.382000
-0.075236 0.047997 1.384000
-0.073237 0.047997 1.384000
-0.071290 0.048031 1.385000
-0.069290 0.048031 1.385000
-0.067436 0.048135 1.388000
